0.0 124.8 0
25.22517863668538 126.8155367561377 0
53.80529059053163 129.8974622710869 0
87.72453979379517 131.2890517825719 0
114.05632380539012 114.05632380539012 0
110.75175235869904 74.00195503821102 0
103.38211968801299 42.822276081653555 0
98.7650777366053 19.645595427024123 0
100.2 6.1354804637282394e-15 0
107.10175262003277 -21.3038631641612 0
114.56106203139954 -47.45274561327113 0
115.32483522636304 -77.05759131981878 0
121.48094500784887 -121.48094500784885 0
139.670356581128 -209.0314605328599 0
53.15472875551099 -128.32686706581774 0
23.80101928596769 -119.65580420919412 0
1.4830472737674446e-14 -121.1 0
-24.269236058806367 -122.00968888216187 0
-50.89689650455692 -122.87597782400114 0
-81.89105234708933 -122.5586208533952 0
-123.39013331705253 -123.39013331705257 0
-160.1410473294702 -107.00282687957538 0
-166.3907038052827 -68.92128616895278 0
-167.3219688367911 -33.28240893595155 0
-168.8 -3.100805695441098e-14 0
-167.42004736483142 33.3019179681531 0
-167.314583337794 69.30396960131779 0
-159.64216556208873 106.66948473976356 0
-115.8240907583565 115.82409075835646 0
-79.11320118199134 118.40127279188243 0
-49.63404117775222 119.82717536671387 0
-23.89856444697577 120.14619684939571 0
-2.9587466667400053e-14 120.8 30
24.60088960623377 123.67702385884736 30
53.23126544198401 128.51164297231998 30
87.0578555141716 130.2912882478089 30
124.23866145447637 124.23866145447644 30
141.76556889758396 94.7247247298422 30
146.1577420432855 60.5405190001573 30
110.92681521360535 22.064715420024164 30
131.6 4.029087969194793e-14 30
238.625058722106 -47.465475346523775 30
285.01683577973193 -118.05783888463023 30
284.2794604462403 -189.94946266940184 30
240.84056967213837 -240.84056967213778 30
142.83710690933975 -213.77083732298433 30
86.90740749011205 -209.81304183331312 30
24.113163801193416 -121.2250606578393 30
4.4675115232895444e-14 -121.6 30
-24.40579928421752 -122.69623857844415 30
-50.85862816132044 -122.78358987075 30
-81.6132672305795 -122.14288604724395 30
-122.68302653586606 -122.68302653586593 30
-168.62203737495616 -112.66964325637537 30
-212.76945633734925 -88.13199447368035 30
-217.7343322495172 -43.310051487580424 30
-217.3 -9.314051230915194e-14 30
-196.64744872084776 39.1156095642335 30
-171.28726532759256 70.94950836048764 30
-152.40837993505662 101.83602371249297 30
-116.67261889578049 116.67261889578019 30
-78.61318797227374 117.65295014081013 30
-49.48096780480621 119.45762355370933 30
-23.7620012215644 119.45964715311348 30
-5.868507461514117e-14 119.8 60
24.249727026604603 121.91161035412158 60
52.580703606963326 126.9410477670508 60
87.05785551417156 130.29128824780892 60
131.6632826569352 131.6632826569351 60
214.10342516790533 143.05933500254764 60
278.54967905215284 115.37905485807485 60
296.09907615373527 58.89776821666909 60
299.0 1.6477622682527638e-13 60
309.43775596721923 -61.55099659608809 60
302.1086071311908 -125.13748238338432 60
293.5919201040289 -196.17184927922128 60
254.20488783656418 -254.20488783656347 60
146.67054151717508 -219.50797764787188 60
78.18222523218803 -188.74858849205583 60
24.1911999299999 -121.61737477000058 60
7.427482836828697e-14 -121.3 60
-24.1131638011933 -121.2250606578393 60
-50.016724610116995 -120.75105489922528 60
-80.22434164803067 -120.06421201648746 60
-119.07678195181464 -119.07678195181457 60
-164.38154235221316 -109.83623506797544 60
-217.29646604665453 -90.00714329226935 60
-222.83441570761389 -44.324521162064734 60
-220.1 -5.39225758622778e-13 60
-215.28236904850905 42.822325682540246 60
-181.3575522319656 75.12075777326707 60
-155.8174053454971 104.11386166787334 60
-119.28891398617077 119.28891398617036 60
-78.72430201887789 117.81924406327047 60
-49.40443111833302 119.27284764720714 60
-23.70347412495959 119.1654115689925 60
-8.802761192271174e-14 119.8 90
24.191199929999733 121.61737477000061 90
52.46589857725354 126.6638839072975 90
87.50231170058746 130.9564639376508 90
140.502117421767 140.50211742176697 90
229.48561299550238 153.33738431341033 90
291.4839925073108 120.73662291118617 90
295.60868351353355 58.800223055661625 90
300.7 -2.947871614803094e-13 90
286.58545893382393 -57.00539209311277 90
304.6030818689713 -126.17072765076998 90
317.87083278326327 -212.39450008339364 90
252.2956995273606 -252.29569952735974 90
141.1703962102814 -211.27642848607638 90
54.187974022896654 -130.82134180359824 90
24.659416702838634 -123.97125944296833 90
1.065565179938112e-13 -124.3 90
-24.971561218064227 -125.54051589161354 90
-51.85360508546938 -125.18567665527947 90
-83.61332006945021 -125.13617665153302 90
-125.51145366061219 -125.51145366061219 90
-169.78609483217969 -113.44744158260286 90
-234.38823739811332 -97.08678679102358 90
-204.1994953799525 -40.61780504375832 90
-205.0 -5.524425974459569e-13 90
-189.58579470194445 37.71095924571763 90
-166.57547971178502 68.9978228554256 90
-156.7320219190299 104.72498892419485 90
-113.27850634608512 113.27850634608471 90
-77.33537643632891 115.7405700325141 90
-48.485990880656836 117.05553676918005 90
-23.449856706338657 117.89039070446829 90
-1.200153863164406e-13 122.5 120
24.73745283164486 124.36357355512966 120
54.1879740228964 130.82134180359833 120
89.05790835304232 133.28457885209795 120
135.6230806315798 135.62308063157982 120
209.03146053285977 139.67035658112815 120
280.9517658366821 116.37403178222421 120
298.55103935474324 59.38549402171007 120
277.5 -2.0407545918468758e-13 120
246.56941949337215 -49.04570695485466 120
287.7884743772659 -119.2058891817253 120
331.25749354133427 -221.33918083500913 120
246.9216879903429 -246.9216879903419 120
131.78125927225017 -197.2245920381634 120
51.50918999634106 -124.3541850760192 120
23.976600575782218 -120.53851096155702 120
1.341355639106096e-13 -121.7 120
-24.249727026604525 -121.91161035412158 120
-50.705554788374094 -122.41403805774561 120
-81.39103913737179 -121.81029820232284 120
-120.56170619230632 -120.56170619230639 120
-163.71636666237106 -109.39177888155982 120
-218.03556967266354 -90.31329003816153 120
-258.73115697037207 -51.46482694785523 120
-210.9 -6.199977668726808e-13 120
-193.90124993571865 38.56935666258855 120
-167.3145833377941 69.30396960131763 120
-155.23537661688533 103.72496250475952 120
-118.01612178003504 118.01612178003454 120
-78.27984583246227 117.15406837342842 120
-49.4809678048061 119.4576235537094 120
-23.722983157161263 119.26349009703281 120
-1.4708008057759711e-13 120.1 150
24.269236058806126 122.00968888216191 150
51.85360508546934 125.18567665527948 150
86.28005718794381 129.12723079058554 150
131.30972926634138 131.3097292663424 150
204.62467158765577 136.72583434612505 150
276.7019199871306 114.61368799334386 150
259.71194225077545 51.65991726987047 150
232.8 -1.141832086287993e-13 150
221.06900220288816 -43.97335858243527 150
328.5315617610137 -136.08222854902564 150
341.9834515400372 -228.50603684096185 150
197.7070560197591 -197.70705601975823 150
134.6146674606502 -201.46508706090634 150
51.815336742233605 -125.09328870202805 150
24.21070896220203 -121.7154532980408 150
5.982686517750221e-13 -122.1 150
-24.327763155411382 -122.3039244662828 150
-50.55248141542846 -122.04448624474094 150
-81.1688110441639 -121.47771035740183 150
-120.98597026101822 -120.98597026101834 150
-162.05342743776595 -108.28063841552066 150
-213.32378405685594 -88.36160453309961 150
-302.0818663641948 -60.08781918096825 150
-213.7 -6.805705307042913e-13 150
-211.45730645493663 42.061473426676436 150
-195.12335726638415 80.82274091550607 150
-161.0556639030028 107.61395413589726 150
-118.29896449250926 118.29896449250955 150
-78.44651690236776 117.40350925711944 150
-49.8253828939347 120.28911513296953 150
-23.898564446975808 120.14619684939571 150
-1.7634913907721887e-13 120.0 180
24.347272187612546 122.40200299432323 180
52.389361890780435 126.4791080007953 180
88.00232491030452 131.70478658872347 180
135.76450198781657 135.7645019878177 180
202.8785854018204 135.55913685678394 180
262.9361149527124 108.91170485110413 180
210.57459970257364 41.885892136862545 180
247.0 -6.065044009511658e-14 180
130.34636376558933 -25.92750379594339 180
88.23049535482792 -36.54626779086597 180
370.6691531644751 -247.67320988013802 180
219.48594488030488 -219.4859448803038 180
142.33709369962276 -213.02251467191164 180
53.346070471694006 -128.78880683207316 180
24.639907670637555 -123.87318091492789 180
-2.4312343214870875e-13 -124.0 180
-24.620398638435546 -123.77510238688765 180
-51.203043250449085 -123.61508145001014 180
-80.94658295095604 -121.14512251248084 180
-121.19810229537416 -121.19810229537434 180
-161.47139870915413 -107.89173925240698 180
-212.39990452434463 -87.97892110073458 180
-228.8172059180735 -45.514572126363355 180
-210.2 -7.20908229835977e-13 180
-210.4765211745334 41.866383104660265 180
-193.3679861546127 80.09564239401236 180
-157.0646097639506 104.94721701740312 180
-117.16759364261081 117.16759364261104 180
-77.11314834312074 115.4079821875933 180
-48.945210999495025 118.16419220819355 180
-23.58641993175003 118.57694040075053 180
-2.077980688793229e-13 121.2 210
24.483835413023805 123.08855269060548 210
51.70053171252325 124.816124842275 210
87.78009681709665 131.37219874380247 210
126.99637790110337 126.99637790110451 210
197.30773899939334 131.8368162955526 210
252.03433646907916 104.39604034919614 210
268.63708830244485 53.435239200217346 210
190.0 -1.1760632095178797e-16 210
222.9324942356543 -44.344030194265805 210
175.2599473173912 -72.5950471196573 210
258.9196372710129 -173.0045705623036 210
196.9999492385727 -196.99994923857162 210
135.67025090338754 -203.04487932428108 210
49.97845626688121 -120.65866694597385 210
24.171690897798864 -121.51929624196013 210
6.564634962821224e-13 -121.8 210
-24.405799284217775 -122.69623857844411 210
-50.66728644513793 -122.32165010449435 210
-81.33548211406972 -121.72715124109263 210
-120.98597026101815 -120.98597026101841 210
-163.79951362360123 -109.44733590486192 210
-208.79677434755058 -86.48645571451078 210
-210.8688352866944 -41.94441923346821 210
-207.5 -7.624710709513194e-13 210
-206.16106594075922 41.007985687789265 210
-189.4876921180653 78.48837197807896 210
-155.9005523067271 104.16941869117564 210
-119.43033534240779 119.43033534240797 210
-76.94647727321491 115.15854130390251 210
-49.404431118333164 119.2728476472071 210
-23.722983157161348 119.26349009703279 210
-2.394429421692905e-13 122.2 240
24.405799284217323 122.6962385784442 240
50.629018101900975 122.22926215124342 240
85.16891672190452 127.46429156598053 240
132.08754672564646 132.08754672564768 240
194.48074231756465 129.94787750328598 240
263.85999448522364 109.29438828346933 240
272.06983678385615 54.11805532727387 240
275.8 6.738080258139693e-14 240
300.0222172753482 -59.67812950473336 240
392.00208564453925 -162.37258035250696 240
257.83872677501967 -172.28232925937806 240
220.2637623396102 -220.26376233960892 240
137.3369616024464 -205.5392881611887 240
51.47092165310511 -124.26179712276785 240
24.542362509629548 -123.38278827472627 240
-1.8149846243885006e-13 -123.4 240
-24.483835413024195 -123.08855269060541 240
-50.74382313161092 -122.50642601099662 240
-81.16881104416382 -121.4777103574019 240
-119.64246737676369 -119.64246737676399 240
-161.13881086423305 -107.66951115919922 240
-203.43827305898512 -84.2668918067933 240
-207.0437726931218 -41.183566977605345 240
-206.6 -8.097663732518173e-13 240
-204.68988802015437 40.71535020476502 240
-189.94963188432095 78.67971369426145 240
-154.32076004335227 103.11383524843833 240
-123.74368670764575 123.74368670764588 240
-78.89097308878354 118.06868494696141 240
-49.82538289393479 120.28911513296948 240
-23.820528318169444 119.7538827372344 240
-2.676098185496796e-13 121.4 270
24.62039863843503 123.77510238688777 270
52.04494680165177 125.64761642153516 270
87.39119765398289 130.79017001519074 270
142.83556979968188 142.8355697996833 270
192.651509170499 128.7256229906429 270
252.12672442233026 104.4343086924328 270
406.7316557832197 80.90395654008832 270
106.7 5.220188015368505e-14 270
25.89273140264529 -5.150384501225757 270
396.43670740059343 -164.2094608278593 270
342.14974546249795 -228.61715088756546 270
228.60762235761155 -228.60762235761007 270
141.0592821636778 -211.1101345636157 270
50.5142130721924 -121.95209829148962 270
24.444817348621513 -122.89239563452466 270
7.237716937129161e-13 -123.1 270
-24.756961863846747 -124.46165208316992 270
-51.27957993692202 -123.79985735651243 270
-82.33550853350495 -123.22379654323727 270
-121.33952365161137 -121.33952365161174 270
-162.38601528268686 -108.50286650872866 270
-207.22617914228135 -85.83589387949021 270
-207.73032238940405 -41.32013020301669 270
-205.6 -8.562043608948483e-13 270
-205.474516244477 40.87142246237788 270
-188.84097644530743 78.2204935754233 270
-156.3162871128784 104.44720380768536 270
-112.7835315992543 112.78353159925436 270
-76.55757811010125 114.5765125752907 270
-49.13655271567766 118.62613197444917 270
-23.60592896395173 118.67501892879083 270
-2.956297373141711e-13 120.7 300
24.483835413023712 123.0885526906055 300
53.231265441983496 128.5116429723202 300
88.94679430643772 133.1182849296379 300
143.04770183403784 143.0477018340393 300
210.02922406762212 140.33704086075275 300
350.15034282177675 145.03702086637128 300
340.332492299921 67.69634173959653 300
175.8 1.3782010570444067e-12 300
19.321470023943647 -3.8432793437176995 300
348.85691147626324 -144.50126406105468 300
318.0371267057241 -212.505614129997 300
233.91092321650905 -233.91092321651075 300
140.83705407047003 -210.77754671869462 300
51.203043250448715 -123.61508145001028 300
24.503344445226382 -123.1866312186456 300
-1.2154037413323225e-13 -123.9 300
-24.815488960450665 -124.75588766729109 300
-52.15975183136169 -125.92478028128839 300
-84.28000434907263 -126.13394018629681 300
-123.95581874200157 -123.955818742002 300
-164.88042411959367 -110.16957720778869 300
-223.67123482098228 -92.64765897558893 300
-201.551375122864 -40.09106117431368 300
-205.0 -9.039162288012472e-13 300
-206.65145858096056 41.105530848798644 300
-187.17799328678714 77.53166339716611 300
-156.2331401516482 104.39164678438335 300
-113.06637431172976 113.06637431172814 300
-75.22420955085421 112.58098550576457 300
-48.33291750771183 116.68598495617512 300
-23.27427541652434 117.00768395210534 300
-1.1857576882027465e-12 121.0 330
24.8154889604511 124.75588766729099 330
55.06814591733682 132.94626472837402 330
91.66908844823372 137.19248602992042 330
142.12846301849632 142.1284630184958 330
211.44272240853644 141.28151025688612 330
361.6988369781688 149.82056377093252 330
60.71060885695988 12.07609093279879 330
31.1 3.044996206498825e-14 330
35.70058420667765 -7.101287721386756 330
435.7939754855744 -180.51177504661183 330
321.69559299985383 -214.95012315528544 330
211.77848096537178 -211.7784809653702 330
128.22560978092366 -191.9031865194278 330
49.40443111833368 -119.27284764720687 330
24.36678121981425 -122.50008152236353 330
7.92990463946507e-13 -124.5 330
-24.834997992653136 -124.85396619533124 330
-52.3510935475433 -126.38672004754444 330
-84.94668862869702 -127.13170372105927 330
-124.3800828107126 -124.38008281071484 330
-166.12762853804824 -111.00293255731697 330
-217.94318171941285 -90.27502169492385 330
-210.9669138147347 -41.96392826567003 330
-204.9 5.022407456878962e-13 330
-206.55338005292055 41.086021816595505 330
-185.2378462685129 76.7280281892007 330
-158.64440202732632 106.00280046013904 330
-112.50068888677974 112.50068888677967 330
-74.83531038774132 111.99895677715224 330
-47.68235567269037 115.11538975090625 330
-23.157221223315517 116.41921278386323 330
-3.544617695452099e-13 120.6 360
24.542362509629367 123.3827882747263 360
54.60892579849775 131.83760928936084 360
90.28016286568564 135.1138119991634 360
146.65394641808913 146.6539464180908 360
208.61572572670872 139.39257146461802 360
375.55702996583693 155.56081525641162 360
41.48721736105664 8.252320621282248 360
16.1 1.3410422833539945e-13 360
474.79815424320407 -94.4432248880068 360
416.94683302234534 -172.70503302636098 360
313.96292560544174 -209.78331998820076 360
207.1115762095391 -207.11157620954046 360
87.66898277049384 -131.20590482134122 360
49.06001602920429 -118.44135606794705 360
24.230217994403855 -121.81353182608109 360
-6.074865943130299e-14 -123.7 360
-25.069106379071563 -126.0309085318153 360
-53.03992372580134 -128.0497032060644 360
-86.83562742096271 -129.95870040288858 360
-126.71353518862904 -126.7135351886296 360
-171.6153279792442 -114.6696960952476 360
-223.11690710147542 -92.41804891616997 360
-203.3167886275898 -40.442223753942805 360
-205.6 -1.0072767900376656e-12 360
-197.53015547321053 39.29119085404854 360
-173.41218825236896 71.82968025492627 360
-152.24208601259602 101.7249096658892 360
-108.25804819966125 108.25804819965961 360
-73.5019418284935 110.00342970762665 360
-47.567550642981686 114.83822589115252 360
-23.17673025551633 116.51729131190373 360
4.831097877535632e-13 123.2 390
25.127633475676834 126.32514411593618 390
54.30277905260658 131.09850566335143 390
92.44688677446109 138.35654348714402 390
140.71424945612313 140.7142494561228 390
198.63809037907717 132.72572866838425 390
355.1392922973386 147.10351140114057 390
14.809857734088757 2.945863862443654 390
16.5 2.4237793442613887e-14 390
9.611695747951675 -1.9118851557579681 390
428.58771513198644 -177.52684427416392 390
323.6911200693801 -216.2834917145323 390
216.65751775555904 -216.65751775555728 390
121.61432400799052 -182.00869813302742 390
48.715600940076584 -117.60986448868653 390
23.918073479177217 -120.24427537743608 390
8.340860204382e-13 -121.6 390
-24.42530831641921 -122.79431710648446 390
-51.27957993692102 -123.79985735651285 390
-82.89107876652443 -124.0552661555399 390
-121.62236636408502 -121.62236636408734 390
-163.134337933759 -109.00287971844648 390
-207.8728948150398 -86.10377228214452 390
-207.43608680528305 -41.26160310641206 390
-202.9 3.979461103886881e-13 390
-180.95488423439622 35.99416441197461 390
-155.95086508790516 64.59696338322725 390
-137.52507387484164 91.89131654144123 390
-116.24835482706848 116.24835482706833 390
-76.55757811010216 114.57651257529008 390
-48.983479342731734 118.25658016144459 390
-23.801019285968827 119.65580420919389 390
-4.1731064327745206e-13 121.7 420
24.717943799443823 124.26549502708922 420
53.84355893376751 129.9898502243383 420
91.83575951814048 137.4419269136106 420
142.9062804778004 142.9062804778021 420
212.02475113714905 141.67040941999852 420
334.25961486258245 138.45486582969198 420
48.45079285191957 9.637461907596785 420
3.3 2.9103735856043335e-14 420
17.556056519217833 -3.492116764088654 420
454.45634204230385 -188.24198038038304 420
321.6124460386253 -214.8945661319809 420
228.11264761077965 -228.11264761078087 420
133.55908401791336 -199.8852947975312 420
48.8686743130218 -117.97941630169139 420
23.957091543581324 -120.44043243351655 420
-1.5028849856365325e-16 -121.4 420
-24.308254123208634 -122.20584593824272 420
-50.82035981808376 -122.69120191749896 420
-82.66885067331569 -123.7226783106195 420
-121.62236636408586 -121.6223663640865 420
-162.63545616637674 -108.6695375786359 420
-209.81304183331287 -86.90740749011273 420
-205.27835918839622 -40.832404397975154 420
-203.9 -1.0988303324748397e-12 420
-186.1530462205331 37.02814311866134 420
-159.83115912445305 66.20423379915945 420
-149.7476771756884 100.0581989668303 420
-115.89480143647606 115.8948014364742 420
-76.44646406349746 114.4102186528301 420
-48.75386928331355 117.70225244193747 420
-23.547401867347038 118.38078334466984 420
-1.3118490557887406e-12 121.7 450
24.854507024854197 124.95204472337166 450
53.996632306714446 130.35940203734245 450
92.66911486766887 138.68913133206507 450
141.56277759354694 141.5627775935467 450
200.63361744860322 134.0590972276314 450
349.6884030555219 144.8456791501867 450
82.28788502583089 16.368078017153852 450
46.4 9.08890576671618e-14 450
459.5959823969547 -91.41932489675324 450
383.41000599218455 -158.813624431511 450
305.56508252118476 -204.1720606347048 450
193.39370465452163 -193.39370465451984 450
82.89107876652443 -124.0552661555399 450
49.25135774538777 -118.9032958342023 450
24.132672833395016 -121.32313918587961 450
9.002670476292687e-13 -122.5 450
-24.600889606233658 -123.67702385884738 450
-51.58572668281302 -124.5389609825219 450
-83.55776304614788 -125.05302969030299 450
-123.03657992645802 -123.03657992646049 450
-167.4579799177322 -111.89184493014848 450
-201.68290194721413 -83.53979328529853 450
-201.74753217894428 -40.13007923871859 450
-201.4 2.96346626518559e-13 450
-183.308768907364 36.46238118481322 450
-158.90727959194132 65.82155036679546 450
-151.07802855537324 100.94711133966057 450
-112.85424227737312 112.85424227737285 450
-74.94642443434535 112.16525069961267 450
-48.179844134765105 116.31643314317087 450
-23.235257352122083 116.8115268960245 450
-4.777102234113996e-13 121.9 480
25.01057928246796 125.73667294769409 480
53.99663230671348 130.35940203734285 480
91.2801892851208 136.61045730130806 480
115.82409075835571 115.82409075835726 480
120.97882859002031 80.83546890435215 480
121.30538261873156 50.24633466953725 480
124.8539661953312 24.83499799265332 480
128.9 1.1999523501288817e-12 480
132.5040913824765 -26.356702504378546 480
135.53312741940638 -56.13965952795722 480
142.68018547111717 -95.33585198616314 480
161.57389950112574 -161.57389950112645 480
80.89102592765475 -121.06197555125013 480
49.710577864225066 -120.01195127321618 480
24.132672833395908 -121.32313918587946 480
5.980718082641758e-14 -122.4 480
-24.48383541302308 -123.08855269060564 480
-51.81533674223292 -125.0932887020283 480
-83.89110518595872 -125.55191145768512 480
-121.62236636408579 -121.62236636408656 480
-150.9948815941411 -100.89155431636141 480
-173.50457620561934 -71.86794859816465 480
-179.87602042595253 -35.77956505775758 480
-181.6 -1.0676125287643693e-12 480
-157.80835161687975 31.390032812395123 480
-149.2989324538244 61.84164267019743 480
-142.26445066496555 95.05806686965381 480
-113.98561312727243 113.9856131272705 480
-75.83533680717593 113.49560207929726 480
-48.562527567131056 117.24031267568179 480
-23.430347674137415 117.79231217642788 480
3.550545286283501e-13 120.7 510
24.62039863843479 123.77510238688781 510
52.54243526372702 126.8486598137996 510
89.8912637025708 134.53178327055238 510
109.17728701520295 109.17728701520291 510
115.49112914882294 77.16870536642362 510
119.91956331996496 49.67230952098878 510
123.77510238688747 24.620398638436484 510
127.8 3.129406161367075e-13 510
132.20985579835573 -26.29817540777274 510
133.31581654137887 -55.22121929028195 510
134.1160484644003 -89.6134785860622 510
133.64318164425816 -133.6431816442568 510
83.89110518595979 -125.55191145768443 510
49.40443111833387 -119.2728476472068 510
24.074145736790236 -121.02890360175863 510
9.618425362826524e-13 -122.7 510
-24.67892573504005 -124.0693379710087 510
-51.777068398995496 -125.00090074877758 510
-83.50220602284587 -124.9698827290728 510
-121.55165568596624 -121.55165568596878 510
-136.11157553392627 -90.94684714530943 510
-137.10372262467507 -56.790221362979004 510
-136.7214680882102 -27.195590889049026 510
-137.9 1.3535910717129258e-13 510
-140.44845215374278 27.93693411270861 510
-140.7992407547201 58.32095509243963 510
-139.6037479055981 93.28024212399006 510
-113.34921702420377 113.34921702420338 510
-77.33537643632971 115.74057003251357 510
-48.40945419418422 116.87076086267764 510
-23.46936573854151 117.98846923250838 510
-5.338970185562801e-13 121.1 540
24.600889606234023 123.67702385884732 540
52.19802017459752 126.01716823453981 540
89.61347858606192 134.1160484644005 540
132.65323215059536 132.65323215059726 540
197.3077389993939 131.83681629555173 540
244.55091225573673 101.29630454704133 540
150.74669759797646 29.985382493879218 540
156.4 1.5325685008078557e-12 540
255.886879657203 -50.89906501400701 540
216.37258651414436 -89.6244598599016 540
195.81109369725002 -130.8367898761154 540
186.46405819889227 -186.46405819889293 540
103.0027212018352 -154.15446612089127 540
49.40443111833305 -119.27284764720714 540
24.21070896220242 -121.71545329804071 540
1.2035297579949883e-13 -123.0 540
-24.659416702837525 -123.97125944296855 540
-51.70053171252333 -124.81612484227496 540
-84.22444732577043 -126.05079322506671 540
-122.04663043279766 -122.04663043279854 540
-148.16788491231245 -99.00261552409481 540
-145.04908660427174 -60.081298881319825 540
-143.97927916319426 -28.639259271967425 540
-142.6 -9.081883611425228e-13 540
-145.5485356118394 28.951403787193442 540
-145.418638417277 60.23437225426401 540
-143.59480204464967 95.94697924248513 540
-112.5713995648994 112.57139956489735 540
-76.1131219236858 113.9113368854485 540
-47.758892359164406 115.30016565740809 540
-23.020657997903594 115.73266308758109 540
-1.3910997784928997e-12 118.3 570
24.113163801192805 121.2250606578394 570
50.97343319103009 123.06075373050332 570
87.78009681709626 131.37219874380273 570
132.51181079435898 132.51181079435904 570
187.2469566905322 125.11441647601592 570
171.7492050938481 71.14085007667046 570
148.88320556521012 29.614710882049668 570
155.3 4.563542272853393e-13 570
174.57977991177538 -34.72607731886896 570
185.69978603476898 -76.91936990538225 570
178.01764399397467 -118.94758688949722 570
186.74690091136824 -186.74690091136614 570
121.89210912450058 -182.42443293917853 570
50.399408042483174 -121.67493443173612 570
24.464326380822552 -122.99047416256508 570
1.036107222717112e-12 -124.4 570
-24.874016057056117 -125.05012325141195 570
-52.198020174597026 -126.01716823454001 570
-83.55776304614776 -125.05302969030306 570
-122.32947314527136 -122.32947314527408 570
-153.3229965085889 -102.44715096881536 570
-299.42935648690826 -124.02770042952504 570
-146.7254779483231 -29.18551217361366 570
-144.1 7.085622683205058e-14 570
-185.17226094013017 36.83305279664366 570
-144.67953479126757 59.92822550837294 570
-144.25997773449242 96.39143542889974 570
-113.13708498984786 113.13708498984735 570
-77.77983262274547 116.40574572235555 570
-48.06503910505569 116.03926928341745 570
-23.215748319920586 116.71344836798417 570
